   1.7400000e+00   2.1320000e+01   9.2560000e+01
   1.3350000e+00   2.9720000e+01   7.3560000e+01
   1.6100000e+00   2.1400000e+01   6.4800000e+01
   2.1500000e+00   2.9720000e+01   9.0000000e+01
   1.5650000e+00   2.6200000e+01   8.8400000e+01
   1.1450000e+00   2.2040000e+01   7.5200000e+01
   8.9400000e-01   2.1760000e+01   7.2400000e+01
   5.2500000e-01   9.7200000e+00   7.2080000e+01
   2.4000000e-01   1.1320000e+01   5.6400000e+01
   6.2500000e-01   1.6880000e+01   7.5600000e+01
   3.8730000e+00   2.1640000e+01   1.4320000e+02
   1.4250000e+00   1.5720000e+01   6.6800000e+01
   4.5500000e-01   7.0800000e+00   3.7880000e+01
   1.0250000e+00   1.7400000e+01   4.7600000e+01
   7.7500000e-01   2.3760000e+01   7.0800000e+01
   6.2000000e-01   1.0800000e+01   4.6800000e+01
   4.0000000e-01   6.6800000e+00   2.5200000e+01
   6.2500000e-01   1.1320000e+01   3.1320000e+01
   3.5500000e-01   6.6400000e+00   3.9560000e+01
   1.5850000e+00   2.5080000e+01   1.1428000e+02
   1.8850000e+00   3.4720000e+01   1.2028000e+02
   1.3000000e+00   3.1520000e+01   7.1760000e+01
   1.5750000e+00   3.5000000e+01   9.0680000e+01
   4.1910000e+00   2.1760000e+01   1.4560000e+02
   1.4850000e+00   1.5840000e+01   8.2800000e+01
   9.1500000e-01   1.8600000e+01   8.6000000e+01
   7.0500000e-01   2.1960000e+01   6.6400000e+01
   6.2000000e-01   2.4440000e+01   7.8000000e+01
   8.8500000e-01   1.3880000e+01   4.6800000e+01
   1.9600000e+00   3.5120000e+01   1.2384000e+02
   3.1550000e+00   2.4280000e+01   1.5160000e+02
   1.2800000e+00   2.3280000e+01   8.1600000e+01
   1.7850000e+00   1.7720000e+01   5.8000000e+01
   1.8950000e+00   2.6720000e+01   1.4160000e+02
   5.7000000e-01   7.4400000e+00   4.7600000e+01
   5.4000000e-01   1.0600000e+01   5.3200000e+01
   7.5000000e-01   2.6600000e+01   8.0800000e+01
   8.7500000e-01   2.0800000e+01   7.6400000e+01
   2.8180000e+00   2.1960000e+01   8.0800000e+01
   3.8050000e+00   2.8880000e+01   2.1932000e+02
   6.0500000e-01   1.2800000e+01   6.7160000e+01
   1.0030000e+00   2.0560000e+01   1.1000000e+02
   1.9000000e+00   2.4800000e+01   8.3600000e+01
   8.9500000e-01   2.4160000e+01   1.0244000e+02
   4.0200000e+00   2.1960000e+01   1.0160000e+02
   5.6000000e-01   1.1120000e+01   5.7200000e+01
   1.3900000e+00   2.4600000e+01   1.4920000e+02
   1.9100000e+00   8.0000000e+00   5.0400000e+01
   1.0700000e+00   1.9920000e+01   7.0800000e+01
   7.9500000e-01   1.5280000e+01   6.5600000e+01
   5.5000000e-01   1.6000000e+01   7.6000000e+01
   1.2550000e+00   2.5440000e+01   1.0160000e+02
   2.0550000e+00   2.0800000e+01   5.9360000e+01
   1.2200000e+00   2.0320000e+01   9.0000000e+01
   9.7500000e-01   2.3600000e+01   8.3200000e+01
   4.6500000e-01   9.1600000e+00   4.4400000e+01
   1.1450000e+00   3.1560000e+01   7.4400000e+01
   1.5250000e+00   2.6800000e+01   8.7600000e+01
   1.4550000e+00   1.2680000e+01   3.9600000e+01
   1.1200000e+00   1.9960000e+01   8.3200000e+01
   1.8190000e+00   2.8600000e+01   8.2400000e+01
   4.9500000e-01   1.0920000e+01   5.0400000e+01
   2.1200000e+00   2.1520000e+01   6.4800000e+01
   2.1500000e+00   1.9720000e+01   1.2080000e+02
   6.5000000e-01   1.9280000e+01   7.4000000e+01
   8.4000000e-01   1.6080000e+01   5.8800000e+01
   3.9250000e+00   2.6120000e+01   9.2360000e+01
   1.9800000e+00   1.7680000e+01   1.0800000e+02
   4.5000000e-01   1.0000000e+01   3.9400000e+01
   2.9600000e+00   1.5000000e+01   1.4840000e+02
   1.6850000e+00   1.4720000e+01   8.4320000e+01
   1.3050000e+00   2.7200000e+01   7.7600000e+01
   4.2270000e+00   2.2920000e+01   1.3680000e+02
   9.8000000e-01   1.9400000e+01   7.2800000e+01
   1.5700000e+00   2.8320000e+01   8.1600000e+01
   8.6000000e-01   2.3480000e+01   6.3600000e+01
   2.1700000e+00   2.9480000e+01   7.4400000e+01
   1.5600000e+00   2.3520000e+01   9.4000000e+01
   8.1000000e-01   2.0840000e+01   5.8800000e+01
   1.7100000e+00   2.6960000e+01   1.2540000e+02
   8.4500000e-01   2.6200000e+01   7.9600000e+01
   3.5700000e-01   6.5600000e+00   4.6800000e+01
   1.5350000e+00   1.3400000e+01   5.2400000e+01
   1.2850000e+00   7.1600000e+00   6.5200000e+01
   1.8200000e+00   1.0440000e+01   3.9800000e+01
   9.4500000e-01   3.2600000e+01   1.0436000e+02
   1.6050000e+00   1.6200000e+01   7.5200000e+01
   2.2300000e+00   3.7720000e+01   9.6600000e+01
   8.9000000e-01   2.2960000e+01   6.6000000e+01
   1.8980000e+00   2.8360000e+01   8.6000000e+01
   3.7000000e-01   6.0800000e+00   4.7200000e+01
   1.3800000e+00   2.5760000e+01   7.1600000e+01
   2.8500000e-01   2.4520000e+01   7.6000000e+01
   6.1000000e-01   1.0360000e+01   5.1240000e+01
   6.2500000e-01   1.9200000e+01   4.3600000e+01
   3.2500000e-01   4.7200000e+00   3.5080000e+01
   1.9850000e+00   3.7200000e+01   8.9840000e+01
   9.5000000e-01   2.6520000e+01   7.4000000e+01
   2.0400000e+00   2.9800000e+01   1.0720000e+02
   3.2500000e-01   4.7600000e+00   4.0800000e+01
   8.3000000e-01   2.4640000e+01   8.4400000e+01
   8.0000000e-01   1.6000000e+01   1.0040000e+02
   2.0800000e+00   2.4840000e+01   7.9600000e+01
   2.5500000e+00   1.6120000e+01   9.6960000e+01
   2.5350000e+00   2.6640000e+01   1.2680000e+02
   1.4350000e+00   2.1320000e+01   1.1032000e+02
   3.7500000e-01   1.4400000e+01   4.6400000e+01
   1.9300000e+00   3.3760000e+01   1.6628000e+02
   1.2150000e+00   1.5200000e+01   6.4000000e+01
   1.0500000e+00   2.0000000e+01   4.8400000e+01
   1.2600000e+00   1.7600000e+01   6.2800000e+01
   6.8500000e-01   1.6240000e+01   7.6000000e+01
   7.0500000e-01   1.4600000e+01   5.9880000e+01
   1.3850000e+00   5.3600000e+00   4.9200000e+01
   5.0500000e-01   1.0920000e+01   5.4400000e+01
   1.7400000e+00   2.7720000e+01   7.3600000e+01
   5.6000000e-01   1.3720000e+01   5.7200000e+01
   1.9170000e+00   1.8720000e+01   5.9600000e+01
   3.2000000e-01   6.4400000e+00   3.9880000e+01
   6.3000000e-01   1.8680000e+01   8.0760000e+01
   4.1800000e+00   2.2200000e+01   8.1720000e+01
   1.1100000e+00   3.0320000e+01   7.9000000e+01
   4.2500000e-01   5.0400000e+00   6.1600000e+01
   2.8000000e-01   1.2280000e+01   4.6400000e+01
   1.3900000e+00   2.8200000e+01   1.3588000e+02
   2.8050000e+00   3.2920000e+01   6.5600000e+01
   1.7100000e+00   3.5000000e+01   1.0636000e+02
   1.6500000e-01   7.0800000e+00   4.4000000e+01
   1.3600000e+00   7.0800000e+00   2.8880000e+01
   2.4000000e-01   5.2000000e+00   3.2240000e+01
   1.4450000e+00   2.0680000e+01   7.5600000e+01
   5.1500000e-01   8.9600000e+00   5.0400000e+01
   5.6000000e-01   1.2400000e+01   4.9200000e+01
   9.0500000e-01   1.6560000e+01   7.8400000e+01
   6.0500000e-01   1.1440000e+01   5.4000000e+01
   2.4230000e+00   2.8320000e+01   8.4000000e+01
   7.8500000e-01   2.2720000e+01   6.0800000e+01
   8.1000000e-01   1.4920000e+01   4.2000000e+01
   1.1000000e+00   1.7920000e+01   4.4000000e+01
   9.5100000e-01   2.0360000e+01   7.0800000e+01
   2.7500000e-01   4.6400000e+00   3.3440000e+01
   1.5800000e+00   3.2200000e+01   8.6000000e+01
   1.0600000e+00   2.9240000e+01   8.0800000e+01
   2.5800000e+00   2.7360000e+01   1.0640000e+02
   3.6800000e+00   2.8720000e+01   8.9600000e+01
   1.8750000e+00   2.5400000e+01   6.5200000e+01
   8.0500000e-01   2.6000000e+01   6.1600000e+01
   5.3500000e-01   5.4000000e+00   3.2920000e+01
   2.0550000e+00   2.3160000e+01   1.0800000e+02
   5.5500000e-01   1.9600000e+01   6.4800000e+01
   1.5100000e+00   3.0680000e+01   8.0400000e+01
   5.8000000e-01   1.0920000e+01   5.0400000e+01
   1.9700000e+00   2.5760000e+01   9.9200000e+01
   7.6500000e-01   2.0960000e+01   9.0800000e+01
   7.3500000e-01   2.3240000e+01   7.9040000e+01
   1.4450000e+00   3.4400000e+01   1.0440000e+02
   2.2340000e+00   2.9680000e+01   6.4000000e+01
   2.2500000e-01   1.0120000e+01   5.6000000e+01
   7.4000000e-01   8.6800000e+00   6.2400000e+01
   1.9150000e+00   2.0640000e+01   9.0240000e+01
   3.4210000e+00   2.0440000e+01   1.3440000e+02
   1.8350000e+00   2.1440000e+01   9.7480000e+01
   1.7700000e+00   2.7000000e+01   8.9200000e+01
   3.9950000e+00   2.2000000e+01   1.1824000e+02
   2.6000000e-01   4.7600000e+00   2.7200000e+01
   4.4000000e-01   1.6680000e+01   5.4800000e+01
   1.0150000e+00   1.9280000e+01   7.0400000e+01
   4.8500000e-01   2.0920000e+01   5.7960000e+01
   2.8280000e+00   2.4960000e+01   1.3280000e+02
   1.3800000e+00   1.7120000e+01   5.5200000e+01
   1.6600000e+00   2.9320000e+01   1.2332000e+02
   6.8500000e-01   1.6320000e+01   5.3600000e+01
   9.3000000e-01   2.3120000e+01   5.6400000e+01
   5.1290000e+00   1.8280000e+01   1.3560000e+02
   7.2500000e-01   1.2720000e+01   5.6720000e+01
   7.4000000e-01   1.7200000e+01   8.3200000e+01
   9.9000000e-01   2.2920000e+01   6.5600000e+01
   1.9500000e-01   7.5200000e+00   4.3200000e+01
   1.3400000e+00   2.3120000e+01   8.1200000e+01
   1.2400000e+00   2.2520000e+01   8.3200000e+01
   1.8400000e+00   3.5280000e+01   8.6000000e+01
   9.1000000e-01   1.8000000e+01   7.5200000e+01
   1.2700000e+00   1.9440000e+01   6.5200000e+01
   1.4800000e+00   2.6160000e+01   1.4040000e+02
   1.2450000e+00   2.1960000e+01   7.1200000e+01
   1.3850000e+00   1.9640000e+01   9.4800000e+01
   1.7200000e+00   1.6520000e+01   7.5600000e+01
   5.2500000e-01   8.3600000e+00   4.9600000e+01
   6.9000000e-01   9.0400000e+00   4.5600000e+01
   3.5300000e+00   2.4440000e+01   1.2480000e+02
   9.3000000e-01   2.0240000e+01   6.9200000e+01
   1.1650000e+00   2.4000000e+01   5.9600000e+01
   3.8100000e+00   2.7080000e+01   1.0200000e+02
   1.3500000e-01   5.2400000e+00   3.2560000e+01
   2.1500000e-01   8.1600000e+00   4.4000000e+01
   1.7750000e+00   2.2360000e+01   9.1600000e+01
   5.8500000e-01   1.5960000e+01   7.6800000e+01
   1.5630000e+00   2.8720000e+01   1.0400000e+02
   2.7500000e-01   4.2000000e+00   3.7880000e+01
   2.5050000e+00   3.1040000e+01   7.8400000e+01
   1.3850000e+00   2.2600000e+01   1.2300000e+02
   1.7900000e+00   2.5640000e+01   8.0320000e+01
   2.1150000e+00   5.3200000e+01   1.3388000e+02
   1.6300000e+00   4.2920000e+01   7.7400000e+01
   2.7000000e+00   1.5000000e+01   9.9600000e+01
   4.4950000e+00   2.2640000e+01   1.0168000e+02
   7.6500000e-01   1.1280000e+01   8.6200000e+01
   4.0000000e-01   1.3360000e+01   4.4000000e+01
   3.2000000e-01   7.2000000e+00   4.3720000e+01
   6.5500000e-01   8.2400000e+00   5.1240000e+01
   1.1100000e+00   2.4440000e+01   7.1120000e+01
   7.7000000e-01   2.3880000e+01   6.2280000e+01
   1.2050000e+00   2.7440000e+01   8.5520000e+01
   1.5550000e+00   2.3920000e+01   7.7560000e+01
   5.7500000e-01   1.3200000e+01   6.6920000e+01
   5.2500000e-01   1.8000000e+01   9.1480000e+01
   7.0500000e-01   1.7600000e+01   9.6600000e+01
   9.9000000e-01   1.5720000e+01   6.0120000e+01
   1.6550000e+00   1.7320000e+01   8.1600000e+01
   5.1500000e-01   8.2000000e+00   4.3200000e+01
   3.5000000e-01   4.9200000e+00   3.7160000e+01
   2.3000000e-01   5.6800000e+00   3.2080000e+01
   3.0500000e-01   5.6000000e+00   4.4800000e+01
   1.5350000e+00   3.2400000e+01   8.5600000e+01
   1.5300000e+00   2.6400000e+01   8.0800000e+01
   3.0000000e-01   6.3200000e+00   2.7120000e+01
   4.2500000e-01   8.0000000e+00   3.1480000e+01
   3.6000000e-01   1.1800000e+01   2.8920000e+01
   1.0600000e+00   2.3920000e+01   7.8400000e+01
   9.0000000e-01   2.6200000e+01   9.4800000e+01
   1.6100000e+00   8.7600000e+00   3.1160000e+01
   9.5000000e-01   1.8720000e+01   6.1200000e+01
   8.2000000e-01   1.6720000e+01   6.7600000e+01
   8.6000000e-01   2.0120000e+01   6.1600000e+01
   1.8350000e+00   2.4000000e+01   9.0000000e+01
   2.2000000e-01   1.7520000e+01   4.5200000e+01
   1.0950000e+00   2.8800000e+01   5.6800000e+01
   9.9500000e-01   1.9120000e+01   5.4000000e+01
   9.6000000e-01   2.1920000e+01   6.4800000e+01
   1.4000000e+00   2.6400000e+01   7.0800000e+01
   6.9000000e-01   2.3680000e+01   6.6400000e+01
   7.2000000e-01   2.6720000e+01   6.3200000e+01
   2.2600000e+00   2.1520000e+01   7.7600000e+01
   1.1300000e+00   1.3200000e+01   3.2840000e+01
   6.4500000e-01   8.8800000e+00   4.2400000e+01
   6.3000000e-01   9.3600000e+00   3.6640000e+01
   8.6000000e-01   1.7480000e+01   5.8800000e+01
   1.6450000e+00   2.0320000e+01   9.0400000e+01
   3.1490000e+00   2.7720000e+01   9.8000000e+01
   5.5200000e-01   2.0120000e+01   7.9200000e+01
   1.5680000e+00   2.2280000e+01   7.1600000e+01
   8.5500000e-01   2.1000000e+01   5.9600000e+01
   7.3300000e-01   2.2240000e+01   7.4000000e+01
   2.0800000e+00   2.8640000e+01   1.1080000e+02
   8.4400000e-01   2.6480000e+01   9.0000000e+01
   4.9000000e-01   1.6760000e+01   5.6800000e+01
   1.9160000e+00   2.8440000e+01   9.0800000e+01
   1.3840000e+00   2.0720000e+01   4.6800000e+01
   8.4900000e-01   1.7560000e+01   5.8000000e+01
