   2.5720000e+01   7.7360000e+01   2.1320000e+01
   2.4760000e+01   7.7880000e+01   2.9720000e+01
   8.8800000e+00   3.0800000e+01   2.1400000e+01
   2.2700000e+01   5.6400000e+01   2.9720000e+01
   3.4320000e+01   6.6400000e+01   2.6200000e+01
   3.1280000e+01   7.2400000e+01   2.2040000e+01
   2.7440000e+01   6.0000000e+01   2.1760000e+01
   6.6120000e+01   1.4100000e+02   9.7200000e+00
   2.2320000e+01   5.2400000e+01   1.1320000e+01
   1.8720000e+01   4.1600000e+01   1.6880000e+01
   2.2240000e+01   4.6000000e+01   2.1640000e+01
   8.7600000e+00   5.6400000e+01   1.5720000e+01
   2.1360000e+01   3.8360000e+01   7.0800000e+00
   5.8800000e+00   5.2800000e+01   1.7400000e+01
   1.7600000e+01   3.2920000e+01   2.3760000e+01
   1.8520000e+01   4.2000000e+01   1.0800000e+01
   3.9600000e+00   2.1480000e+01   6.6800000e+00
   8.2400000e+00   2.9920000e+01   1.1320000e+01
   2.1560000e+01   4.6800000e+01   6.6400000e+00
   4.0880000e+01   8.8680000e+01   2.5080000e+01
   3.5920000e+01   7.2880000e+01   3.4720000e+01
   8.8000000e+00   5.6520000e+01   3.1520000e+01
   2.2120000e+01   4.3680000e+01   3.5000000e+01
   1.5480000e+01   3.3360000e+01   2.1760000e+01
   1.1160000e+01   3.4640000e+01   1.5840000e+01
   3.9800000e+01   6.4800000e+01   1.8600000e+01
   1.5760000e+01   3.9520000e+01   2.1960000e+01
   4.8800000e+01   6.3200000e+01   2.4440000e+01
   4.5200000e+00   3.7160000e+01   1.3880000e+01
   4.7120000e+01   9.3920000e+01   3.5120000e+01
   4.8800000e+01   5.5600000e+01   2.4280000e+01
   2.4960000e+01   4.9200000e+01   2.3280000e+01
   9.6520000e+00   5.8400000e+01   1.7720000e+01
   2.5280000e+01   3.5600000e+01   2.6720000e+01
   3.3800000e+01   5.8400000e+01   7.4400000e+00
   1.7400000e+01   3.6880000e+01   1.0600000e+01
   1.6400000e+01   3.9800000e+01   2.6600000e+01
   6.5200000e+01   6.9600000e+01   2.0800000e+01
   2.9120000e+01   4.6000000e+01   2.1960000e+01
   1.1204000e+02   2.2956000e+02   2.8880000e+01
   2.8800000e+01   5.6600000e+01   1.2800000e+01
   2.1200000e+01   4.8800000e+01   2.0560000e+01
   1.0280000e+01   3.6440000e+01   2.4800000e+01
   6.0720000e+01   8.9680000e+01   2.4160000e+01
   2.1080000e+01   5.2000000e+01   2.1960000e+01
   1.2720000e+01   3.9640000e+01   1.1120000e+01
   5.7200000e+01   1.2920000e+02   2.4600000e+01
   1.1600000e+01   6.9160000e+01   8.0000000e+00
   1.0880000e+01   2.9880000e+01   1.9920000e+01
   9.9200000e+00   3.7480000e+01   1.5280000e+01
   5.0400000e+01   7.7200000e+01   1.6000000e+01
   4.9600000e+01   8.0400000e+01   2.5440000e+01
   1.0800000e+01   4.3600000e+01   2.0800000e+01
   5.1600000e+01   8.0800000e+01   2.0320000e+01
   3.0100000e+01   4.8800000e+01   2.3600000e+01
   2.3320000e+01   5.4800000e+01   9.1600000e+00
   1.4800000e+01   4.7600000e+01   3.1560000e+01
   2.2000000e+01   4.6800000e+01   2.6800000e+01
   7.2800000e+00   3.6520000e+01   1.2680000e+01
   2.0720000e+01   4.1200000e+01   1.9960000e+01
   1.7600000e+01   3.5800000e+01   2.8600000e+01
   1.4320000e+01   3.2760000e+01   1.0920000e+01
   1.2320000e+01   4.2400000e+01   2.1520000e+01
   2.8960000e+01   4.2800000e+01   1.9720000e+01
   3.5560000e+01   8.0800000e+01   1.9280000e+01
   2.2840000e+01   5.0400000e+01   1.6080000e+01
   4.7400000e+01   8.4160000e+01   2.6120000e+01
   2.7120000e+01   3.9920000e+01   1.7680000e+01
   1.2440000e+01   3.4000000e+01   1.0000000e+01
   3.8960000e+01   7.0400000e+01   1.5000000e+01
   9.4000000e+00   3.4560000e+01   1.4720000e+01
   1.7500000e+01   3.8960000e+01   2.7200000e+01
   1.6880000e+01   3.4640000e+01   2.2920000e+01
   2.2700000e+01   4.1600000e+01   1.9400000e+01
   1.7440000e+01   4.9600000e+01   2.8320000e+01
   1.5120000e+01   3.2840000e+01   2.3480000e+01
   1.2520000e+01   3.7680000e+01   2.9480000e+01
   3.4000000e+01   7.6400000e+01   2.3520000e+01
   1.2080000e+01   3.6280000e+01   2.0840000e+01
   5.6240000e+01   1.0468000e+02   2.6960000e+01
   2.7920000e+01   7.8800000e+01   2.6200000e+01
   1.3240000e+01   3.5400000e+01   6.5600000e+00
   5.8800000e+00   5.5200000e+01   1.3400000e+01
   1.3640000e+01   8.4400000e+01   7.1600000e+00
   7.6000000e+00   2.7040000e+01   1.0440000e+01
   3.7400000e+01   5.9040000e+01   3.2600000e+01
   1.3480000e+01   4.9600000e+01   1.6200000e+01
   2.4600000e+01   4.4880000e+01   3.7720000e+01
   4.4000000e+00   2.6760000e+01   2.2960000e+01
   1.5160000e+01   5.9200000e+01   2.8360000e+01
   1.5720000e+01   2.9360000e+01   6.0800000e+00
   1.5640000e+01   3.4440000e+01   2.5760000e+01
   1.4160000e+01   4.4000000e+01   2.4520000e+01
   1.6400000e+01   5.2560000e+01   1.0360000e+01
   5.3600000e+00   4.1200000e+01   1.9200000e+01
   9.7200000e+00   2.4640000e+01   4.7200000e+00
   1.8920000e+01   4.2680000e+01   3.7200000e+01
   1.5400000e+01   3.6600000e+01   2.6520000e+01
   2.6200000e+01   6.3920000e+01   2.9800000e+01
   1.7520000e+01   4.4400000e+01   4.7600000e+00
   1.9200000e+01   3.6360000e+01   2.4640000e+01
   1.6640000e+02   1.4680000e+02   1.6000000e+01
   1.1520000e+01   3.7560000e+01   2.4840000e+01
   1.2120000e+01   3.6560000e+01   1.6120000e+01
   3.1960000e+01   7.7600000e+01   2.6640000e+01
   5.3200000e+01   1.0760000e+02   2.1320000e+01
   4.2000000e+00   3.7120000e+01   1.4400000e+01
   7.7320000e+01   1.5728000e+02   3.3760000e+01
   9.8000000e+00   3.5640000e+01   1.5200000e+01
   7.4400000e+00   3.7680000e+01   2.0000000e+01
   1.7200000e+01   5.3600000e+01   1.7600000e+01
   1.9640000e+01   4.1600000e+01   1.6240000e+01
   1.9200000e+01   3.4000000e+01   1.4600000e+01
   9.2320000e+00   8.0400000e+01   5.3600000e+00
   1.4000000e+01   3.3240000e+01   1.0920000e+01
   1.8100000e+01   4.1600000e+01   2.7720000e+01
   1.9400000e+01   3.6760000e+01   1.3720000e+01
   8.4000000e+00   3.5120000e+01   1.8720000e+01
   2.6160000e+01   4.5200000e+01   6.4400000e+00
   1.8040000e+01   3.8240000e+01   1.8680000e+01
   8.2000000e+00   4.2040000e+01   2.2200000e+01
   1.7920000e+01   3.8720000e+01   3.0320000e+01
   1.6200000e+01   5.0400000e+01   5.0400000e+00
   1.8000000e+01   4.1200000e+01   1.2280000e+01
   5.9160000e+01   1.0192000e+02   2.8200000e+01
   1.0500000e+01   4.4000000e+01   3.2920000e+01
   3.0000000e+01   5.8600000e+01   3.5000000e+01
   2.3640000e+01   5.6400000e+01   7.0800000e+00
   8.6800000e+00   5.3600000e+01   7.0800000e+00
   2.0720000e+01   2.2360000e+01   5.2000000e+00
   1.5400000e+01   5.0800000e+01   2.0680000e+01
   1.6040000e+01   3.5040000e+01   8.9600000e+00
   8.3520000e+00   2.5400000e+01   1.2400000e+01
   4.4400000e+01   8.2000000e+01   1.6560000e+01
   2.6240000e+01   5.4000000e+01   1.1440000e+01
   3.2520000e+01   8.0400000e+01   2.8320000e+01
   6.7200000e+00   4.3600000e+01   2.2720000e+01
   5.4800000e+00   2.8800000e+01   1.4920000e+01
   5.7200000e+00   3.2480000e+01   1.7920000e+01
   3.8960000e+01   7.8800000e+01   2.0360000e+01
   7.4800000e+00   2.0200000e+01   4.6400000e+00
   9.8400000e+00   6.4800000e+01   3.2200000e+01
   2.6440000e+01   5.1200000e+01   2.9240000e+01
   2.9240000e+01   5.9200000e+01   2.7360000e+01
   1.4440000e+01   5.6400000e+01   2.8720000e+01
   9.5200000e+00   7.0000000e+01   2.5400000e+01
   8.7600000e+00   2.7200000e+01   2.6000000e+01
   8.7600000e+00   2.7040000e+01   5.4000000e+00
   6.0000000e+01   1.9560000e+02   2.3160000e+01
   1.0800000e+01   3.6520000e+01   1.9600000e+01
   1.0880000e+01   4.4400000e+01   3.0680000e+01
   2.0520000e+01   3.4880000e+01   1.0920000e+01
   2.4640000e+01   6.6000000e+01   2.5760000e+01
   4.2000000e+01   7.0800000e+01   2.0960000e+01
   1.7680000e+01   3.9200000e+01   2.3240000e+01
   4.2920000e+01   7.8400000e+01   3.4400000e+01
   1.2520000e+01   4.8400000e+01   2.9680000e+01
   2.7720000e+01   5.5600000e+01   1.0120000e+01
   2.5520000e+01   6.0800000e+01   8.6800000e+00
   1.9320000e+01   4.5720000e+01   2.0640000e+01
   1.4800000e+01   3.4320000e+01   2.0440000e+01
   1.0880000e+01   5.6680000e+01   2.1440000e+01
   1.8920000e+01   4.8800000e+01   2.7000000e+01
   1.5920000e+01   4.5160000e+01   2.2000000e+01
   9.2400000e+00   2.7000000e+01   4.7600000e+00
   1.1280000e+01   5.6400000e+01   1.6680000e+01
   7.3600000e+00   3.4000000e+01   1.9280000e+01
   6.6000000e+00   3.2440000e+01   2.0920000e+01
   7.9200000e+01   1.3520000e+02   2.4960000e+01
   6.4400000e+00   4.5600000e+01   1.7120000e+01
   2.4600000e+01   5.7280000e+01   2.9320000e+01
   1.1360000e+01   2.3680000e+01   1.6320000e+01
   6.7720000e+00   5.1200000e+01   2.3120000e+01
   1.4760000e+01   3.6800000e+01   1.8280000e+01
   1.7000000e+01   3.4080000e+01   1.2720000e+01
   9.6000000e+01   5.9200000e+01   1.7200000e+01
   1.4500000e+01   3.6240000e+01   2.2920000e+01
   2.5120000e+01   4.9600000e+01   7.5200000e+00
   2.5300000e+01   4.4400000e+01   2.3120000e+01
   1.8320000e+01   5.2000000e+01   2.2520000e+01
   3.3320000e+01   4.4400000e+01   3.5280000e+01
   2.1200000e+01   6.4800000e+01   1.8000000e+01
   1.9120000e+01   6.5200000e+01   1.9440000e+01
   1.0680000e+02   2.2640000e+02   2.6160000e+01
   2.2640000e+01   6.4400000e+01   2.1960000e+01
   1.2080000e+02   6.6400000e+01   1.9640000e+01
   1.6400000e+01   5.2400000e+01   1.6520000e+01
   2.6280000e+01   4.6400000e+01   8.3600000e+00
   1.7040000e+01   5.2400000e+01   9.0400000e+00
   6.6000000e+01   1.1800000e+02   2.4440000e+01
   9.0000000e+00   3.8120000e+01   2.0240000e+01
   8.6400000e+00   3.8320000e+01   2.4000000e+01
   1.7920000e+01   6.4800000e+01   2.7080000e+01
   1.0440000e+01   3.7000000e+01   5.2400000e+00
   2.3440000e+01   4.6800000e+01   8.1600000e+00
   2.9760000e+01   5.4800000e+01   2.2360000e+01
   2.4360000e+01   5.0000000e+01   1.5960000e+01
   2.6720000e+01   5.2400000e+01   2.8720000e+01
   8.2400000e+00   3.2560000e+01   4.2000000e+00
   1.2160000e+01   6.5200000e+01   3.1040000e+01
   5.8720000e+01   1.1648000e+02   2.2600000e+01
   1.9920000e+01   6.2360000e+01   2.5640000e+01
   6.1320000e+01   1.7212000e+02   5.3200000e+01
   1.8080000e+01   6.3160000e+01   4.2920000e+01
   1.5560000e+01   3.8280000e+01   1.5000000e+01
   1.0240000e+01   3.2920000e+01   2.2640000e+01
   3.7600000e+01   6.8400000e+01   1.1280000e+01
   9.6000000e+00   3.2760000e+01   1.3360000e+01
   1.2920000e+01   4.0200000e+01   7.2000000e+00
   1.7200000e+01   4.1880000e+01   8.2400000e+00
   1.0280000e+01   4.7800000e+01   2.4440000e+01
   1.6000000e+01   4.4400000e+01   2.3880000e+01
   1.1360000e+01   4.1040000e+01   2.7440000e+01
   1.5400000e+01   5.1240000e+01   2.3920000e+01
   3.1800000e+01   5.4280000e+01   1.3200000e+01
   7.9200000e+01   1.3856000e+02   1.8000000e+01
   4.8720000e+01   8.6680000e+01   1.7600000e+01
   9.2800000e+00   3.8000000e+01   1.5720000e+01
   3.1520000e+01   9.0360000e+01   1.7320000e+01
   1.3120000e+01   2.6960000e+01   8.2000000e+00
   1.1600000e+01   2.7680000e+01   4.9200000e+00
   8.7200000e+00   2.6840000e+01   5.6800000e+00
   1.7120000e+01   4.8400000e+01   5.6000000e+00
   2.9600000e+01   5.6800000e+01   3.2400000e+01
   1.7720000e+01   4.7600000e+01   2.6400000e+01
   1.3400000e+01   3.7760000e+01   6.3200000e+00
   4.6800000e+00   2.2560000e+01   8.0000000e+00
   4.4400000e+00   1.8960000e+01   1.1800000e+01
   2.8000000e+01   5.0000000e+01   2.3920000e+01
   4.9000000e+01   7.0400000e+01   2.6200000e+01
   9.4400000e+00   4.2800000e+01   8.7600000e+00
   1.9600000e+01   3.7880000e+01   1.8720000e+01
   3.2100000e+01   6.3200000e+01   1.6720000e+01
   1.2700000e+01   3.7080000e+01   2.0120000e+01
   4.5920000e+01   8.0400000e+01   2.4000000e+01
   6.6720000e+00   3.1880000e+01   1.7520000e+01
   6.2000000e+00   4.6800000e+01   2.8800000e+01
   5.3800000e+00   5.1200000e+01   1.9120000e+01
   1.6400000e+01   3.0760000e+01   2.1920000e+01
   1.5240000e+01   3.8400000e+01   2.6400000e+01
   1.6440000e+01   3.4120000e+01   2.3680000e+01
   1.1400000e+01   3.2680000e+01   2.6720000e+01
   1.2640000e+01   3.6280000e+01   2.1520000e+01
   5.9200000e+00   2.1600000e+01   1.3200000e+01
   8.4000000e+00   2.8560000e+01   8.8800000e+00
   7.2400000e+00   2.6000000e+01   9.3600000e+00
   1.2800000e+01   2.8600000e+01   1.7480000e+01
   3.5600000e+01   6.7600000e+01   2.0320000e+01
   8.2400000e+00   5.6000000e+01   2.7720000e+01
   5.0000000e+01   9.1200000e+01   2.0120000e+01
   1.8400000e+01   4.3600000e+01   2.2280000e+01
   1.1400000e+01   2.9680000e+01   2.1000000e+01
   3.9200000e+01   6.5600000e+01   2.2240000e+01
   7.1600000e+01   5.2800000e+01   2.8640000e+01
   2.1040000e+01   3.4680000e+01   2.6480000e+01
   4.6400000e+00   3.1640000e+01   1.6760000e+01
   4.5600000e+01   5.0000000e+01   2.8440000e+01
   7.4800000e+00   4.8000000e+01   2.0720000e+01
   1.8400000e+01   3.5000000e+01   1.7560000e+01
