   2.7000000e+01   6.0000000e+01   3.7390000e+01
   1.7500000e+01   4.8000000e+01   3.1770000e+01
   2.3500000e+01   5.4500000e+01   3.4050000e+01
   2.5500000e+01   6.4000000e+01   3.7390000e+01
   0.0000000e+00   2.0000000e+01   5.8530000e+01
   2.2000000e+01   4.9000000e+01   2.9630000e+01
   2.1000000e+01   6.1000000e+01   3.2040000e+01
   2.0000000e+01   4.9000000e+01   2.9770000e+01
   2.1000000e+01   5.4000000e+01   4.0340000e+01
   2.4750000e+01   6.2700000e+01   5.2650000e+01
   1.9000000e+01   5.1000000e+01   3.8460000e+01
   2.1000000e+01   5.7000000e+01   3.3780000e+01
   2.5000000e+01   5.5000000e+01   2.7090000e+01
   1.7000000e+01   2.7000000e+01   3.2840000e+01
   2.6500000e+01   7.8000000e+01   3.8460000e+01
   2.4500000e+01   6.1000000e+01   2.6020000e+01
   2.0000000e+00   2.0000000e+01   4.6360000e+01
   2.0000000e+01   6.8500000e+01   4.3950000e+01
   0.0000000e+00   2.0000000e+01   5.0500000e+01
   1.8000000e+01   4.8000000e+01   3.7660000e+01
   2.5000000e+01   7.8000000e+01   4.4480000e+01
   8.0000000e+00   3.0000000e+01   3.6460000e+01
   2.0500000e+01   6.1500000e+01   4.5420000e+01
   2.3500000e+01   5.3000000e+01   3.0430000e+01
   2.7500000e+01   6.7000000e+01   4.9170000e+01
   1.4500000e+01   5.8500000e+01   3.6590000e+01
   2.9000000e+01   7.8000000e+01   4.8770000e+01
   2.5000000e+01   6.1000000e+01   4.3010000e+01
   1.4500000e+01   3.6500000e+01   3.8190000e+01
   1.8000000e+01   4.6000000e+01   1.7190000e+01
   2.4000000e+01   6.5000000e+01   2.9500000e+01
   0.0000000e+00   2.0000000e+01   4.9970000e+01
   2.3000000e+01   5.4000000e+01   3.3110000e+01
   2.3500000e+01   5.8500000e+01   2.8700000e+01
   0.0000000e+00   2.0000000e+01   4.1540000e+01
   1.9000000e+01   4.8000000e+01   3.2710000e+01
   2.3000000e+01   5.0000000e+01   1.9190000e+01
   2.5000000e+01   6.8500000e+01   4.1010000e+01
   0.0000000e+00   2.0000000e+01   4.1810000e+01
   2.4000000e+01   6.7000000e+01   2.7890000e+01
   2.5000000e+01   6.3000000e+01   2.8290000e+01
   2.7500000e+01   7.0000000e+01   3.4450000e+01
   2.3500000e+01   5.2500000e+01   3.3780000e+01
   2.6000000e+01   6.4000000e+01   3.1900000e+01
   2.6500000e+01   7.0000000e+01   3.9400000e+01
   0.0000000e+00   2.0000000e+01   4.1140000e+01
   1.6250000e+01   3.1000000e+01   3.0830000e+01
   1.7000000e+01   5.4000000e+01   3.3910000e+01
   2.4000000e+01   7.5000000e+01   3.6190000e+01
   0.0000000e+00   2.0000000e+01   4.1010000e+01
   2.1000000e+01   6.4000000e+01   2.6280000e+01
   0.0000000e+00   2.0000000e+01   3.6720000e+01
   2.0500000e+01   4.8200000e+01   4.9300000e+01
   2.1250000e+01   4.6000000e+01   3.6320000e+01
   0.0000000e+00   2.0000000e+01   3.8860000e+01
   2.2000000e+01   4.0000000e+01   3.1500000e+01
   2.1500000e+01   4.2000000e+01   5.2650000e+01
   2.5000000e+01   7.7000000e+01   4.4080000e+01
   2.3000000e+01   5.5000000e+01   2.5210000e+01
   2.3750000e+01   5.8000000e+01   2.8030000e+01
   1.2000000e+01   3.5000000e+01   2.8290000e+01
   2.5500000e+01   6.7000000e+01   3.1370000e+01
   1.3000000e+01   3.8000000e+01   3.3510000e+01
   2.4000000e+01   6.2000000e+01   3.8590000e+01
   3.0000000e+00   2.0000000e+01   3.0970000e+01
   2.4000000e+01   4.7000000e+01   4.1270000e+01
   2.5750000e+01   6.4500000e+01   4.3540000e+01
   1.9000000e+01   4.3000000e+01   3.4990000e+01
   1.0000000e+00   2.0000000e+01   4.1810000e+01
   3.0000000e+00   2.1500000e+01   4.2080000e+01
   1.3000000e+01   4.6000000e+01   3.6190000e+01
   2.1500000e+01   6.4000000e+01   4.1140000e+01
   2.3000000e+01   6.5000000e+01   3.3510000e+01
   2.3000000e+01   6.2000000e+01   3.4990000e+01
   1.5000000e+01   4.8500000e+01   2.9230000e+01
   1.4500000e+01   4.1500000e+01   3.5520000e+01
   2.4000000e+01   5.9000000e+01   2.7620000e+01
   2.7500000e+01   6.4000000e+01   3.9130000e+01
   1.4500000e+01   4.2500000e+01   3.2440000e+01
   0.0000000e+00   2.0000000e+01   1.8520000e+01
