   2.6500000e+02   8.6000000e+01   1.1100000e+02   1.9500000e+02   6.0000000e+00   8.3300000e+02   7.9000000e+02
   3.1800000e+02   1.2600000e+02   0.0000000e+00   2.1000000e+02   6.0000000e+00   8.6100000e+02   7.3700000e+02
   1.5900000e+02   1.1600000e+02   1.4900000e+02   1.7500000e+02   1.5000000e+01   9.5300000e+02   7.2000000e+02
   2.8000000e+02   9.2000000e+01   1.1800000e+02   2.0700000e+02   9.0000000e+00   8.8300000e+02   6.7900000e+02
   3.3200000e+02   0.0000000e+00   1.7000000e+02   1.6000000e+02   6.0000000e+00   9.0000000e+02   8.0600000e+02
   3.1300000e+02   1.2400000e+02   0.0000000e+00   2.0500000e+02   1.1000000e+01   8.4600000e+02   7.5800000e+02
   3.4200000e+02   1.3600000e+02   0.0000000e+00   2.2500000e+02   1.1000000e+01   7.7000000e+02   7.4700000e+02
   3.0500000e+02   1.0000000e+02   0.0000000e+00   1.9600000e+02   1.0000000e+01   9.5900000e+02   7.0500000e+02
   1.6600000e+02   0.0000000e+00   2.6000000e+02   1.8300000e+02   1.3000000e+01   8.5900000e+02   8.2700000e+02
   3.6600000e+02   0.0000000e+00   1.8700000e+02   1.9100000e+02   7.0000000e+00   8.2400000e+02   7.5700000e+02
   3.0400000e+02   0.0000000e+00   1.4000000e+02   2.1400000e+02   6.0000000e+00   8.9500000e+02   7.2200000e+02
   1.5600000e+02   0.0000000e+00   2.4300000e+02   1.8000000e+02   1.1000000e+01   1.0220000e+03   6.9800000e+02
   1.4330000e+02   9.1800000e+01   2.3980000e+02   2.0080000e+02   6.2000000e+00   9.6480000e+02   6.4710000e+02
   1.6530000e+02   1.4320000e+02   2.3830000e+02   2.0040000e+02   7.1000000e+00   8.8320000e+02   6.5260000e+02
   1.9430000e+02   3.0000000e-01   2.4000000e+02   2.3420000e+02   8.9000000e+00   7.8060000e+02   8.1130000e+02
   1.4500000e+02   1.0600000e+02   1.3600000e+02   2.0800000e+02   1.0000000e+01   7.5100000e+02   8.8300000e+02
   3.2000000e+02   1.2700000e+02   1.6400000e+02   2.1100000e+02   6.0000000e+00   7.2100000e+02   7.2300000e+02
   3.4900000e+02   0.0000000e+00   1.7800000e+02   2.3000000e+02   6.0000000e+00   7.8500000e+02   7.2100000e+02
   2.5880000e+02   8.8000000e+01   2.3960000e+02   1.7530000e+02   7.6000000e+00   9.3890000e+02   6.4600000e+02
   1.6000000e+02   0.0000000e+00   2.5000000e+02   1.6800000e+02   1.2000000e+01   1.0490000e+03   6.8800000e+02
   3.0380000e+02   2.0000000e-01   2.3980000e+02   2.3640000e+02   8.3000000e+00   7.8010000e+02   7.1530000e+02
   3.5600000e+02   1.4200000e+02   0.0000000e+00   1.9300000e+02   1.1000000e+01   8.0100000e+02   7.7800000e+02
   3.2200000e+02   0.0000000e+00   1.4900000e+02   1.8600000e+02   8.0000000e+00   9.5100000e+02   7.0900000e+02
   1.4110000e+02   6.0000000e-01   2.0950000e+02   1.8880000e+02   4.6000000e+00   9.9610000e+02   7.8920000e+02
   2.9710000e+02   4.0900000e+01   2.3990000e+02   1.9400000e+02   7.5000000e+00   9.0890000e+02   6.5180000e+02
   1.4500000e+02   0.0000000e+00   2.2700000e+02   2.4000000e+02   6.0000000e+00   7.5000000e+02   8.5300000e+02
   3.4870000e+02   1.0000000e-01   2.2310000e+02   2.0850000e+02   9.6000000e+00   7.8620000e+02   7.5810000e+02
   2.8700000e+02   9.4000000e+01   1.2100000e+02   1.8800000e+02   9.0000000e+00   9.0400000e+02   6.9600000e+02
   1.5030000e+02   1.1140000e+02   2.3880000e+02   1.6730000e+02   6.5000000e+00   9.9950000e+02   6.7050000e+02
   1.4600000e+02   1.7800000e+02   0.0000000e+00   1.9200000e+02   1.1000000e+01   9.6100000e+02   7.4900000e+02
   1.4000000e+02   1.2800000e+02   1.6400000e+02   2.3700000e+02   6.0000000e+00   8.6900000e+02   6.5600000e+02
   2.4830000e+02   1.0100000e+02   2.3910000e+02   1.6890000e+02   7.7000000e+00   9.5420000e+02   6.4060000e+02
   2.5200000e+02   7.6000000e+01   9.7000000e+01   1.9400000e+02   8.0000000e+00   8.3500000e+02   8.2100000e+02
   1.4900000e+02   1.0900000e+02   1.3900000e+02   1.9300000e+02   6.0000000e+00   8.9200000e+02   7.8000000e+02
   1.7200000e+02   1.6210000e+02   2.3850000e+02   1.6600000e+02   7.4000000e+00   9.5330000e+02   6.4140000e+02
   2.7800000e+02   0.0000000e+00   1.1700000e+02   2.0500000e+02   9.0000000e+00   8.7500000e+02   7.9900000e+02
   1.5900000e+02   1.9300000e+02   0.0000000e+00   2.0800000e+02   1.2000000e+01   8.2100000e+02   8.1800000e+02
   2.9500000e+02   1.0600000e+02   1.3600000e+02   2.0600000e+02   1.1000000e+01   7.5000000e+02   7.6600000e+02
   1.7280000e+02   1.5830000e+02   2.3950000e+02   1.6640000e+02   7.4000000e+00   9.5260000e+02   6.4410000e+02
   1.4600000e+02   1.0600000e+02   1.3700000e+02   2.0900000e+02   6.0000000e+00   8.7500000e+02   7.6500000e+02
   2.9900000e+02   1.0700000e+02   0.0000000e+00   2.1000000e+02   1.0000000e+01   8.8100000e+02   7.4500000e+02
   1.3700000e+02   1.6700000e+02   2.1400000e+02   2.2600000e+02   6.0000000e+00   7.0800000e+02   7.5700000e+02
   1.4020000e+02   4.4800000e+01   2.3490000e+02   1.7130000e+02   5.5000000e+00   1.0476000e+03   7.0400000e+02
   3.3600000e+02   1.3400000e+02   0.0000000e+00   2.2200000e+02   6.0000000e+00   7.5600000e+02   7.8700000e+02
   2.9500000e+02   1.0600000e+02   1.3600000e+02   2.0800000e+02   6.0000000e+00   8.7100000e+02   6.5000000e+02
   1.6300000e+02   1.4900000e+02   1.9100000e+02   1.8000000e+02   1.2000000e+01   8.4300000e+02   7.4600000e+02
   1.4000000e+02   1.4000000e+00   1.9810000e+02   1.7490000e+02   4.4000000e+00   1.0499000e+03   7.8050000e+02
   3.5400000e+02   0.0000000e+00   0.0000000e+00   2.3400000e+02   6.0000000e+00   9.5900000e+02   6.9100000e+02
   1.6020000e+02   3.0000000e-01   2.4000000e+02   2.3350000e+02   9.2000000e+00   7.8100000e+02   8.4110000e+02
   1.8430000e+02   1.5340000e+02   2.3920000e+02   1.7900000e+02   7.5000000e+00   9.2020000e+02   6.4090000e+02
   1.4010000e+02   1.1800000e+01   2.2610000e+02   2.0780000e+02   4.9000000e+00   1.0209000e+03   6.8380000e+02
   1.4200000e+02   1.3000000e+02   1.6700000e+02   1.7400000e+02   1.1000000e+01   8.8300000e+02   7.8500000e+02
   3.1000000e+02   0.0000000e+00   1.4300000e+02   1.6800000e+02   1.0000000e+01   9.1400000e+02   8.0400000e+02
   1.4020000e+02   3.0500000e+01   2.3900000e+02   1.6940000e+02   5.3000000e+00   1.0284000e+03   7.4270000e+02
   1.5200000e+02   1.3900000e+02   1.7800000e+02   1.6800000e+02   1.8000000e+01   9.4400000e+02   6.9500000e+02
   3.0700000e+02   1.1000000e+02   0.0000000e+00   1.8900000e+02   1.0000000e+01   9.0400000e+02   7.6500000e+02
   3.2600000e+02   0.0000000e+00   1.6700000e+02   1.7400000e+02   6.0000000e+00   8.8400000e+02   7.9200000e+02
   2.9530000e+02   0.0000000e+00   2.3990000e+02   2.3620000e+02   8.3000000e+00   7.8030000e+02   7.2290000e+02
   1.4700000e+02   8.9000000e+01   1.1500000e+02   2.0200000e+02   9.0000000e+00   8.6000000e+02   8.2900000e+02
   1.4800000e+02   1.0900000e+02   1.3900000e+02   1.9300000e+02   7.0000000e+00   7.6800000e+02   9.0200000e+02
   1.5300000e+02   0.0000000e+00   2.3900000e+02   2.0000000e+02   6.0000000e+00   1.0020000e+03   6.8400000e+02
   1.4200000e+02   1.3000000e+02   1.6700000e+02   2.1500000e+02   6.0000000e+00   7.3500000e+02   8.3600000e+02
   1.6000000e+02   1.4600000e+02   1.8800000e+02   2.0300000e+02   1.1000000e+01   8.2900000e+02   7.1000000e+02
   3.0900000e+02   0.0000000e+00   1.4200000e+02   2.1800000e+02   1.0000000e+01   9.1200000e+02   6.8000000e+02
   2.9800000e+02   1.0700000e+02   0.0000000e+00   1.8600000e+02   6.0000000e+00   8.7900000e+02   8.1500000e+02
   2.9400000e+02   1.0600000e+02   1.3600000e+02   2.0700000e+02   6.0000000e+00   7.4700000e+02   7.7800000e+02
   2.7500000e+02   9.9000000e+01   1.2700000e+02   1.8400000e+02   1.3000000e+01   8.1000000e+02   7.9000000e+02
   1.5800000e+02   0.0000000e+00   2.4600000e+02   1.7400000e+02   7.0000000e+00   1.0350000e+03   7.0600000e+02
   1.6200000e+02   1.4800000e+02   1.9100000e+02   1.7900000e+02   1.6000000e+01   8.4000000e+02   7.4300000e+02
   1.6200000e+02   1.4800000e+02   1.9000000e+02   1.7900000e+02   1.9000000e+01   8.3800000e+02   7.4100000e+02
   3.1000000e+02   0.0000000e+00   1.4300000e+02   2.1800000e+02   1.0000000e+01   7.8700000e+02   8.0400000e+02
   3.1400000e+02   0.0000000e+00   1.6100000e+02   2.0700000e+02   6.0000000e+00   8.5100000e+02   7.5700000e+02
   1.5400000e+02   1.4100000e+02   1.8100000e+02   2.3400000e+02   1.1000000e+01   7.9700000e+02   6.8300000e+02
   2.7300000e+02   8.2000000e+01   1.0500000e+02   2.1000000e+02   9.0000000e+00   9.0400000e+02   6.8000000e+02
   2.9600000e+02   9.7000000e+01   0.0000000e+00   2.1900000e+02   9.0000000e+00   9.3200000e+02   6.8500000e+02
   1.5540000e+02   1.2210000e+02   2.4000000e+02   1.7990000e+02   6.7000000e+00   9.6680000e+02   6.5250000e+02
   2.9100000e+02   1.0500000e+02   0.0000000e+00   2.0500000e+02   6.0000000e+00   8.5900000e+02   7.9700000e+02
   2.1560000e+02   1.1290000e+02   2.3900000e+02   1.9870000e+02   7.4000000e+00   8.8400000e+02   6.4910000e+02
   3.7400000e+02   0.0000000e+00   0.0000000e+00   1.9000000e+02   7.0000000e+00   1.0130000e+03   7.3000000e+02
   1.4800000e+02   1.8000000e+02   0.0000000e+00   1.8300000e+02   1.1000000e+01   9.7200000e+02   7.5700000e+02
